ply
format ascii 1.0
comment Created by CloudCompare v2.10.3 (Zephyrus)
comment Created 3/29/26 2:53 PM
obj_info Generated by CloudCompare!
element vertex 1007
property float x
property float y
property float z
property uchar red
property uchar green
property uchar blue
property float scalar_intensity
property float scalar_Original_cloud_index
end_header
16.0493 -13.8039 0.431653 138 226 52 7.99343 1 
5.73525 5.59623 -0.0764067 138 226 52 9.6001 1 
19.851 -12.0944 -0.266103 138 226 52 4.05549 1 
16.0452 -13.8054 0.469394 138 226 52 8.23836 1 
5.90774 5.59052 -0.0930601 138 226 52 10.1275 1 
18.6497 -13.8189 0.0250653 138 226 52 2.83825 1 
16.109 -13.7924 0.334126 138 226 52 8.11268 1 
18.9307 -13.8169 0.0673638 138 226 52 4.40125 1 
16.1969 -13.7891 0.31798 138 226 52 8.11157 1 
16.2236 -13.8043 0.429057 138 226 52 7.99393 1 
18.7426 -13.8079 0.074817 138 226 52 4.95934 1 
19.3894 -13.8213 0.375517 138 226 52 10.07 1 
16.2509 -13.8053 0.460877 138 226 52 8.19112 1 
5.9828 5.32827 -0.0826447 138 226 52 4.99185 1 
18.5921 -13.6757 0.0140295 138 226 52 7.98079 1 
6.10768 5.27273 -0.0729545 138 226 52 5.03676 1 
19.3878 -13.7353 0.341818 138 226 52 8.08081 1 
18.5896 -13.6733 0.0300831 138 226 52 8.01435 1 
15.912 -13.7821 0.598406 138 226 52 8.99325 1 
6.02145 5.59097 -0.0935334 138 226 52 10.1226 1 
18.7193 -13.6916 0.0821221 138 226 52 8.04444 1 
16.0541 -13.7822 0.584996 138 226 52 9.25835 1 
19.399 -13.8075 0.446991 138 226 52 8.58226 1 
6.03508 5.59006 -0.0929247 138 226 52 9.94543 1 
15.8923 -13.8022 0.6094 138 226 52 9.00973 1 
18.9193 -13.7038 -0.0352765 138 226 52 7.54409 1 
19.3657 -13.7552 0.458835 138 226 52 8.01038 1 
15.9131 -13.7409 0.657264 138 226 52 8.97923 1 
18.9232 -13.6712 -0.0210218 138 226 52 7.92209 1 
18.1867 -13.7029 1.61544 138 226 52 11.0508 1 
16.0556 -13.8034 0.62337 138 226 52 8.99368 1 
18.7601 -13.6732 0.0345921 138 226 52 7.97919 1 
19.5546 -13.8312 0.343725 138 226 52 7.10966 1 
18.3196 -13.7048 1.6131 138 226 52 11.1744 1 
16.0732 -13.8009 0.66609 138 226 52 9.07701 1 
18.8892 -13.694 0.0798325 138 226 52 8.1112 1 
19.5102 -13.7326 0.329937 138 226 52 8.0743 1 
18.316 -13.708 1.62337 138 226 52 11.1088 1 
16.2159 -13.8023 0.65026 138 226 52 8.99393 1 
18.6142 -13.8173 0.131833 138 226 52 5.69638 1 
19.6216 -13.7209 0.33374 138 226 52 8.05999 1 
16.2087 -13.7369 0.657579 138 226 52 8.98563 1 
18.4545 -13.6968 1.63816 138 226 52 11.0522 1 
18.6157 -13.8272 0.19123 138 226 52 6.03493 1 
5.90283 5.21054 -0.0490354 138 226 52 4.0588 1 
19.5712 -13.7477 0.475436 138 226 52 8.05472 1 
18.5792 -13.721 0.182471 138 226 52 8.0821 1 
18.1685 -13.6888 1.76794 138 226 52 11.1111 1 
19.6377 -13.8101 0.4824 138 226 52 11.0683 1 
18.7562 -13.8144 0.19436 138 226 52 6.80855 1 
18.2056 -13.6483 1.75674 138 226 52 15.1095 1 
15.5407 -13.8018 0.71638 138 226 52 9.46425 1 
19.6659 -13.7442 0.458478 138 226 52 8.00194 1 
18.6365 -13.722 1.93552 138 226 52 11.993 1 
18.9008 -13.8261 0.194941 138 226 52 7.34162 1 
15.6195 -13.7534 0.709546 138 226 52 8.97858 1 
18.341 -13.679 1.77583 138 226 52 11.1115 1 
18.6486 -13.7291 2.00856 138 226 52 12.5021 1 
18.786 -13.8039 0.129344 138 226 52 5.77559 1 
19.351 -13.814 0.535097 138 226 52 11.8131 1 
18.4329 -13.6818 1.77898 138 226 52 11.1067 1 
18.7527 -13.6955 1.85058 138 226 52 11.5564 1 
15.6728 -13.7713 0.824417 138 226 52 10.1418 1 
18.7515 -13.7435 0.312213 138 226 52 8.11223 1 
18.6248 -13.7383 2.17717 138 226 52 14.3636 1 
19.3475 -13.8003 0.646101 138 226 52 12.4536 1 
15.7708 -13.8052 0.848464 138 226 52 9.99384 1 
18.7576 -13.7372 2.07777 138 226 52 12.9936 1 
18.805 -13.715 0.20336 138 226 52 8.04675 1 
15.8031 -13.7917 0.831669 138 226 52 12.4287 1 
19.3709 -13.8015 0.664535 138 226 52 13.07 1 
15.5221 -13.793 0.89762 138 226 52 10.0487 1 
18.6471 -13.7022 1.16596 138 226 52 10.0051 1 
19.3479 -13.6619 0.648258 138 226 52 9.04219 1 
19.0517 -13.7253 1.99156 138 226 52 12.243 1 
15.6206 -13.801 0.891371 138 226 52 10.0968 1 
19.1006 -13.7332 2.19244 138 226 52 12.9977 1 
19.1843 -13.729 2.20169 138 226 52 12.9976 1 
18.7385 -13.6973 1.13459 138 226 52 10.1124 1 
19.398 -13.6417 0.637431 138 226 52 8.99318 1 
15.6226 -13.8022 0.913427 138 226 52 10.0043 1 
19.0764 -13.8081 0.0851869 138 226 52 6.33887 1 
18.5922 -13.6673 1.26954 138 226 52 9.98485 1 
15.619 -13.7739 1.04039 138 226 52 10.0214 1 
18.8219 -13.7353 2.30231 138 226 52 14.1336 1 
19.1252 -13.8175 0.0773276 138 226 52 5.09812 1 
19.4142 -13.6508 0.643778 138 226 52 8.98551 1 
18.7289 -13.6959 1.1857 138 226 52 9.99877 1 
15.8051 -13.8018 0.928104 138 226 52 10.1626 1 
19.0862 -13.662 -0.00895658 138 226 52 7.97304 1 
19.5557 -13.6378 0.63409 138 226 52 8.9765 1 
18.6537 -13.6784 1.22843 138 226 52 10.1263 1 
15.7577 -13.7689 1.03444 138 226 52 10.0548 1 
19.0767 -13.6778 0.0745905 138 226 52 8.04137 1 
19.5271 -13.6629 0.65339 138 226 52 9.10553 1 
19.1371 -13.662 -0.019215 138 226 52 7.9498 1 
19.3778 -13.6899 1.1943 138 226 52 9.99896 1 
18.8751 -13.6587 1.27072 138 226 52 10.0093 1 
19.3983 -13.6694 1.25072 138 226 52 10.1124 1 
19.6729 -13.6632 0.651839 138 226 52 9.11183 1 
19.2515 -13.6669 -0.022823 138 226 52 7.86112 1 
19.5051 -13.6853 1.18685 138 226 52 10.0518 1 
15.8058 -13.8013 1.02136 138 226 52 10.5437 1 
18.7829 -13.6625 1.31163 138 226 52 9.98745 1 
19.5243 -13.6624 1.2524 138 226 52 10.1149 1 
19.1927 -13.6781 0.0552198 138 226 52 8.10849 1 
19.6941 -13.6612 1.25785 138 226 52 10.1079 1 
18.7964 -13.6602 1.27891 138 226 52 9.99228 1 
18.9554 -13.7214 0.180395 138 226 52 7.99352 1 
19.3827 -13.6365 1.29011 138 226 52 9.99186 1 
19.0402 -13.8179 0.23358 138 226 52 8.57257 1 
19.3867 -13.647 1.33638 138 226 52 10.0125 1 
19.7181 -13.8018 0.336095 138 226 52 9.14646 1 
16.0332 -13.7441 0.708221 138 226 52 8.97845 1 
19.5491 -13.6329 1.29279 138 226 52 9.99348 1 
19.1134 -13.7388 0.308639 138 226 52 8.11069 1 
19.8039 -13.7481 0.458949 138 226 52 8.0032 1 
15.925 -13.7959 0.816625 138 226 52 12.2732 1 
19.6603 -13.6261 1.2891 138 226 52 10.0138 1 
19.1898 -13.8419 0.141405 138 226 52 6.10971 1 
18.9667 -13.6942 1.15874 138 226 52 10.106 1 
15.934 -13.8033 0.8484 138 226 52 9.99308 1 
19.9922 -13.7564 0.470182 138 226 52 8.11071 1 
19.2805 -13.806 0.230951 138 226 52 8.57073 1 
19.1064 -13.7071 1.14768 138 226 52 10.1067 1 
16.1052 -13.7663 0.806504 138 226 52 9.49206 1 
19.0913 -13.7053 0.155568 138 226 52 8.08223 1 
20.0336 -13.7386 0.542708 138 226 52 8.11264 1 
16.0987 -13.801 0.860349 138 226 52 9.99397 1 
19.0332 -13.6936 1.19364 138 226 52 9.99249 1 
19.0976 -13.7074 0.178381 138 226 52 8.10575 1 
19.7118 -13.6818 1.19438 138 226 52 10.0226 1 
19.7152 -13.6388 0.633679 138 226 52 8.97684 1 
16.2239 -13.8023 0.85725 138 226 52 10.1035 1 
19.8571 -13.6728 1.17977 138 226 52 10.1098 1 
19.2497 -13.7055 0.159213 138 226 52 7.99453 1 
16.2515 -13.7957 0.881118 138 226 52 9.99619 1 
19.8133 -13.6712 0.653559 138 226 52 9.10778 1 
19.8297 -13.6762 1.26715 138 226 52 10.1025 1 
15.9194 -13.8025 0.978712 138 226 52 10.5 1 
19.9475 -13.6731 1.17708 138 226 52 10.1109 1 
19.8716 -13.6029 0.630225 138 226 52 8.97695 0 
19.9766 -13.6741 1.26539 138 226 52 10.1037 1 
15.8971 -13.7728 1.04621 138 226 52 10.0504 1 
19.9882 -13.6654 0.658982 138 226 52 9.05437 1 
20.0423 -13.7214 1.45405 138 226 52 11.1126 1 
15.9318 -13.8024 1.07214 138 226 52 11.308 1 
15.8603 -12.0038 1.50307 138 226 52 11.0352 1 
17.9334 -13.8024 0.344125 138 226 52 10.0968 1 
20.0057 -13.6056 0.656568 138 226 52 8.97806 0 
19.7889 -13.6377 1.31695 138 226 52 10.048 1 
16.0249 -13.8017 1.01619 138 226 52 11.3516 1 
17.8993 -13.7583 0.319517 138 226 52 8.11125 1 
19.809 -13.6269 1.30236 138 226 52 9.98553 1 
16.2046 -13.8144 1.00009 138 226 52 14.8723 1 
17.8621 -13.8223 0.425325 138 226 52 8.92739 1 
19.831 -13.6358 1.44399 138 226 52 11.0432 1 
16.1039 -13.7568 1.0426 138 226 52 10.1121 1 
17.8587 -13.7767 0.45294 138 226 52 8.00278 1 
19.9908 -13.623 1.30646 138 226 52 9.99342 1 
17.9169 -13.8081 0.492308 138 226 52 13.7763 1 
16.2179 -13.7572 1.04191 138 226 52 10.1123 1 
20.5427 -13.677 2.24345 138 226 52 13.0229 1 
19.9228 -13.5962 1.34434 138 226 52 9.97697 0 
20.0074 -13.5922 1.34236 138 226 52 9.97792 0 
18.1391 -13.8204 0.354765 138 226 52 8.82581 1 
20.5286 -13.6346 2.24104 138 226 52 14.056 1 
19.9509 -13.6331 1.37647 138 226 52 9.97721 1 
17.9904 -13.801 0.342741 138 226 52 8.58374 1 
20.5297 -13.6368 2.31011 138 226 52 14.0497 1 
17.9927 -13.764 0.333803 138 226 52 8.10721 1 
20.5544 -13.6123 2.28467 138 226 52 12.9949 1 
16.3621 -13.7575 -0.363268 138 226 52 7.01067 1 
18.1474 -13.754 0.330747 138 226 52 8.10998 1 
20.5191 -13.6137 2.40602 138 226 52 14.9954 1 
19.3591 -13.7314 1.48587 138 226 52 11.0213 1 
16.347 -13.7634 -0.292206 138 226 52 7.10457 1 
17.9921 -13.7728 0.45612 138 226 52 8.01059 1 
19.543 -13.7288 1.47093 138 226 52 10.9965 1 
17.982 -13.8128 0.499737 138 226 52 11.0917 1 
16.5137 -13.7461 -0.384107 138 226 52 7.04488 1 
20.5275 -13.5766 2.41087 138 226 52 14.9952 1 
19.6547 -13.7261 1.48563 138 226 52 10.9929 1 
17.8737 -13.8149 0.687219 138 226 52 11.3269 1 
16.5548 -13.7377 -0.295619 138 226 52 7.0526 1 
19.3603 -13.703 1.64078 138 226 52 10.9945 1 
20.4994 -13.5427 2.384 138 226 52 15.1091 1 
17.8583 -13.8022 0.628522 138 226 52 14.1964 1 
16.3996 -13.8194 -0.191858 138 226 52 5.21992 1 
19.3716 -13.7125 1.65333 138 226 52 11.0936 1 
18.0345 -13.8286 0.673026 138 226 52 12.9806 1 
19.5024 -13.6961 1.63087 138 226 52 10.9953 1 
16.3215 -13.8023 -0.0737395 138 226 52 5.99338 1 
20.3261 -12.4796 1.30634 138 226 52 9.99917 0 
18.1321 -13.8082 0.696552 138 226 52 9.10987 1 
19.6606 -13.6902 1.63344 138 226 52 10.994 1 
19.3954 -13.6797 1.74171 138 226 52 10.995 1 
17.9237 -13.706 0.654616 138 226 52 9.10844 1 
20.5861 -12.7129 1.19766 138 226 52 10.1111 1 
19.3965 -13.6857 1.8399 138 226 52 11.2564 1 
17.9951 -13.6861 0.647579 138 226 52 8.99225 1 
20.4931 -12.4222 -0.182423 138 226 52 5.05691 1 
19.5228 -13.6691 1.70369 138 226 52 11.1127 1 
20.6662 -12.4773 -0.0828069 138 226 52 7.9761 0 
20.4952 -12.7161 1.44523 138 226 52 11.1085 1 
19.6647 -13.6672 1.77061 138 226 52 11.0234 1 
20.6612 -12.7252 1.32287 138 226 52 9.9994 0 
20.7655 -12.7023 1.3542 138 226 52 9.97621 0 
18.3161 -13.8227 0.348622 138 226 52 8.57194 1 
20.6172 -13.521 1.19768 138 226 52 10.1119 1 
20.5407 -13.2969 1.14651 138 226 52 13.1106 1 
20.495 -12.4816 1.45198 138 226 52 11.1029 1 
20.6549 -12.4126 1.3193 138 226 52 9.99915 0 
19.8137 -13.7263 1.48946 138 226 52 10.9949 1 
18.2526 -13.7569 0.335984 138 226 52 8.10612 1 
20.7568 -12.5368 1.39893 138 226 52 9.97616 0 
20.6415 -13.5135 1.30664 138 226 52 10.104 1 
20.4828 -13.3809 1.44757 138 226 52 15.1108 1 
20.002 -13.7216 1.49299 138 226 52 10.9997 1 
18.3053 -13.8135 0.469853 138 226 52 10.3776 1 
20.4582 -12.0779 -0.441964 138 226 52 7.1022 1 
20.4969 -13.2525 1.43901 138 226 52 12.3452 1 
20.23 -12.0679 -0.253049 138 226 52 2.55747 1 
20.0752 -13.721 1.49436 138 226 52 10.9949 1 
18.1729 -13.7782 0.454512 138 226 52 8.024 1 
19.857 -13.6882 1.61749 138 226 52 10.993 1 
18.1668 -13.8014 0.468356 138 226 52 14.1666 1 
19.9243 -13.6929 1.60912 138 226 52 10.9929 1 
18.2276 -13.8127 0.474941 138 226 52 10.109 1 
19.7843 -13.6667 1.78881 138 226 52 10.9914 1 
20.3386 -13.0515 1.31332 138 226 52 9.99964 0 
20.4899 -12.2784 -0.202552 138 226 52 5.05978 1 
18.3196 -13.7762 0.455323 138 226 52 8.04962 1 
20.4182 -12.3093 1.39472 138 226 52 11.0997 1 
19.96 -13.6722 1.73129 138 226 52 11.1089 1 
20.3329 -12.7763 1.30977 138 226 52 9.99941 0 
20.5035 -12.3521 -0.0774174 138 226 52 -0.00182982 1 
18.4453 -13.8062 0.341946 138 226 52 10.3728 1 
20.501 -12.1946 -0.0776874 138 226 52 6.05507 1 
18.4169 -13.7499 0.316955 138 226 52 8.1123 1 
20.4913 -12.0757 -0.190528 138 226 52 0.62635 1 
20.6089 -13.1205 1.19462 138 226 52 10.1116 1 
18.4465 -13.8016 0.393087 138 226 52 11.7144 1 
20.6376 -13.0753 1.32664 138 226 52 9.99967 0 
20.768 -12.9828 1.40547 138 226 52 9.97649 0 
20.6599 -12.1816 -0.0705008 138 226 52 7.97588 0 
20.4733 -12.2631 1.12729 138 226 52 15.0401 1 
20.1396 -13.6641 1.18478 138 226 52 10.1103 1 
18.4683 -13.8143 0.502609 138 226 52 10.7553 1 
20.5311 -12.865 1.32445 138 226 52 13.1027 1 
20.1181 -13.676 1.27159 138 226 52 10.0828 1 
18.4429 -13.767 0.456579 138 226 52 8.01003 1 
20.4701 -12.1253 1.08474 138 226 52 14.0538 1 
20.2263 -13.6645 1.1927 138 226 52 10.1047 1 
20.5012 -12.6683 -0.0562344 138 226 52 3.30053 1 
18.3378 -13.8168 0.682949 138 226 52 11.0442 1 
20.4969 -13.3729 1.70514 138 226 52 12.337 1 
20.4944 -12.064 1.15548 138 226 52 10.0559 1 
20.2994 -13.6649 1.26264 138 226 52 10.0035 1 
20.4858 -12.6953 -0.0310801 138 226 52 2.35729 1 
18.2032 -13.8022 0.63408 138 226 52 13.3681 1 
20.4273 -13.659 1.19264 138 226 52 10.1101 1 
20.6098 -13.4246 1.79717 138 226 52 11.051 1 
20.4667 -12.1609 1.24307 138 226 52 12.9027 1 
18.5104 -13.8269 0.695537 138 226 52 13.4768 1 
20.4982 -12.6981 0.053531 138 226 52 8.04765 1 
20.1592 -13.6167 1.32141 138 226 52 9.97735 1 
20.6162 -13.4176 1.80472 138 226 52 10.9984 1 
18.5125 -13.8023 0.636543 138 226 52 12.1865 1 
20.5166 -12.7262 0.0998643 138 226 52 5.04354 1 
20.4746 -12.1268 1.24009 138 226 52 15.0539 1 
20.6137 -13.1638 1.79761 138 226 52 11.0092 1 
20.4165 -13.6574 1.28481 138 226 52 10.1022 1 
18.1822 -13.6806 0.646356 138 226 52 8.9776 1 
20.4969 -12.6797 0.10519 138 226 52 5.23257 1 
20.2943 -13.6099 1.29673 138 226 52 10.0475 1 
20.6461 -12.1112 1.31621 138 226 52 9.99891 0 
18.2788 -13.6822 0.646689 138 226 52 9.01059 1 
20.5028 -12.5633 -0.0274956 138 226 52 1.51335 1 
20.4459 -13.584 1.35618 138 226 52 9.97665 0 
20.5033 -12.068 1.30645 138 226 52 9.12477 1 
20.4902 -12.5016 -0.0175634 138 226 52 1.05758 1 
18.3439 -13.6773 0.644775 138 226 52 8.98507 1 
20.4623 -12.8071 1.57871 138 226 52 12.9912 1 
20.5108 -12.5331 0.0904016 138 226 52 6.0503 1 
20.496 -12.1185 1.45099 138 226 52 11.1062 1 
18.4621 -13.6772 0.695189 138 226 52 8.98489 1 
20.5946 -13.6561 1.19288 138 226 52 10.0532 1 
20.5239 -12.3917 0.0638223 138 226 52 5.02564 1 
20.611 -13.1113 1.81875 138 226 52 11.0713 1 
20.6289 -13.6325 1.19404 138 226 52 10.1185 1 
20.4794 -12.0333 1.37354 138 226 52 14.8683 1 
20.4924 -12.4698 0.110773 138 226 52 5.0368 1 
20.7386 -12.1845 1.40986 138 226 52 9.97591 0 
20.5439 -13.6669 1.2907 138 226 52 10.1077 1 
20.5064 -12.6684 0.190867 138 226 52 8.0587 1 
20.5638 -13.6078 1.3321 138 226 52 9.97689 1 
20.4852 -12.6823 0.259797 138 226 52 8.45092 1 
20.6038 -13.5746 1.35658 138 226 52 9.97663 0 
20.4913 -12.6941 0.310372 138 226 52 8.10012 1 
20.4319 -12.1677 1.49601 138 226 52 11.1033 1 
20.5843 -13.5288 1.34907 138 226 52 9.98543 0 
20.5047 -12.3775 0.197027 138 226 52 8.11628 1 
20.4887 -13.6124 1.42039 138 226 52 9.97705 1 
20.443 -12.1412 1.60329 138 226 52 11.0721 1 
20.49 -12.4764 0.254886 138 226 52 9.45707 1 
20.3988 -12.5634 1.51588 138 226 52 11.0556 1 
9.78656 -11.9906 -0.354568 138 226 52 6.10059 1 
20.4967 -12.4244 0.303921 138 226 52 8.10418 1 
20.4487 -12.1691 1.63661 138 226 52 11.1029 1 
20.4327 -12.4329 1.63671 138 226 52 10.8202 1 
20.4101 -12.3113 1.7569 138 226 52 12.0765 1 
10.0062 -11.9924 -0.352463 138 226 52 6.10053 1 
20.2541 -13.7231 1.48179 138 226 52 11.058 1 
20.3998 -12.4858 1.77089 138 226 52 12.03 1 
20.3435 -13.7201 1.48737 138 226 52 11.1128 1 
20.1266 -13.695 1.60794 138 226 52 10.9974 1 
20.4979 -12.0397 1.53935 138 226 52 11.0718 1 
20.2444 -13.688 1.6188 138 226 52 11.0081 1 
10.095 -11.9924 -0.107617 138 226 52 6.9955 1 
20.5855 -12.2429 1.78861 138 226 52 10.9996 1 
20.5086 -12.4054 1.59678 138 226 52 10.1222 1 
20.3931 -13.7029 1.59346 138 226 52 11.0847 1 
20.6126 -12.748 1.80084 138 226 52 10.9928 1 
20.4703 -12.1731 1.78491 138 226 52 11.1025 1 
20.4454 -13.6826 1.63402 138 226 52 10.9948 1 
20.4919 -12.4141 1.76641 138 226 52 12.103 1 
20.4688 -12.1387 1.79055 138 226 52 11.1017 1 
20.1776 -13.6594 1.75023 138 226 52 11.1076 1 
20.5806 -12.1414 1.78657 138 226 52 11.1074 1 
20.285 -13.6541 1.76411 138 226 52 11.055 1 
20.5685 -12.1314 1.78207 138 226 52 11.1021 1 
20.3229 -13.6474 1.76709 138 226 52 11.1121 1 
20.3903 -13.6554 1.75417 138 226 52 11.1106 1 
20.4966 -13.3504 1.99284 138 226 52 13.6678 1 
9.95936 -11.994 0.353387 138 226 52 9.98806 1 
20.5798 -13.6636 1.64462 138 226 52 10.9928 1 
20.4983 -12.9785 2.03269 138 226 52 13.0813 1 
20.603 -13.6597 1.74657 138 226 52 11.1104 1 
9.91908 -11.994 0.650546 138 226 52 11.4265 1 
20.588 -12.7615 2.0701 138 226 52 12.1111 1 
20.6509 -13.6499 1.74837 138 226 52 11.1125 1 
9.94934 -11.9924 0.517091 138 226 52 12.7088 1 
9.5042 -11.9924 -0.0428996 138 226 52 6.99104 1 
20.5367 -13.3023 2.39261 138 226 52 13.9909 1 
20.471 -13.6477 1.75324 138 226 52 11.1122 1 
10.0808 -11.9897 0.547043 138 226 52 9.92582 1 
20.615 -13.6262 1.80624 138 226 52 10.9969 1 
20.5429 -13.0414 2.27733 138 226 52 12.9943 1 
9.60242 -11.9894 -0.061945 138 226 52 6.98795 1 
20.5145 -13.0189 2.38997 138 226 52 14.4923 1 
20.6059 -13.5962 1.79811 138 226 52 11.1051 1 
9.58463 -11.993 0.237832 138 226 52 7.99365 1 
20.6084 -13.5453 1.7959 138 226 52 11.1076 1 
20.4951 -12.4062 2.0859 138 226 52 13.1041 1 
20.6184 -13.5525 1.80939 138 226 52 11.0249 1 
20.6599 -13.6176 1.76481 138 226 52 11.1123 1 
10.0659 -11.9943 0.816732 138 226 52 11.6504 1 
9.90314 -11.9938 1.0236 138 226 52 14.8778 1 
20.4619 -12.0142 1.92965 138 226 52 10.0311 1 
19.3939 -13.7255 1.92803 138 226 52 12.1123 1 
20.4436 -12.172 1.97043 138 226 52 12.0709 1 
19.3948 -13.7236 2.02511 138 226 52 12.4932 1 
20.4268 -12.249 2.13126 138 226 52 13.1042 1 
19.6566 -13.7317 1.92739 138 226 52 12.1066 1 
20.4438 -12.071 2.12087 138 226 52 11.5608 1 
19.5077 -13.7244 1.97159 138 226 52 12.0227 1 
19.5093 -13.6973 1.87432 138 226 52 11.5567 1 
10.2575 -11.9899 0.0491807 138 226 52 7.05172 1 
10.23 -11.9885 -0.350441 138 226 52 6.09941 1 
19.6574 -13.6949 1.87618 138 226 52 11.5475 1 
10.4102 -11.9899 -0.337516 138 226 52 6.09655 1 
19.691 -13.7042 1.98027 138 226 52 11.9962 1 
20.4744 -12.1575 1.87725 138 226 52 11.1043 1 
10.5015 -11.983 -0.337987 138 226 52 6.10031 1 
10.3595 -11.9887 0.0522384 138 226 52 7.05154 1 
20.5074 -12.0917 2.02545 138 226 52 10.1248 1 
10.2277 -11.9933 -0.096138 138 226 52 6.93815 1 
14.5531 -13.7646 1.63429 138 226 52 10.9949 1 
10.4481 -11.9891 0.16293 138 226 52 8.10054 1 
20.4648 -12.0344 1.98414 138 226 52 10.075 1 
10.4555 -11.9883 -0.102073 138 226 52 7.10054 1 
20.4948 -12.2153 2.07711 138 226 52 13.1023 1 
14.7138 -13.8117 1.56905 138 226 52 12.1289 1 
10.4982 -11.9903 -0.107095 138 226 52 7.02838 1 
20.4959 -12.1529 2.21691 138 226 52 13.4926 1 
14.4485 -13.7765 1.73515 138 226 52 11.1047 1 
20.5267 -12.7367 2.33979 138 226 52 13.9938 1 
20.4986 -12.5234 2.39586 138 226 52 14.9939 1 
14.3943 -13.8133 1.77785 138 226 52 12.9939 1 
14.5693 -13.7758 1.6928 138 226 52 11.0098 1 
10.6853 -11.9898 -0.279127 138 226 52 6.10042 1 
20.5179 -12.0791 2.27267 138 226 52 12.9934 1 
14.5378 -13.8111 1.7857 138 226 52 12.9935 1 
20.4888 -12.0243 2.38763 138 226 52 14.9937 1 
10.6992 -11.9934 0.0479149 138 226 52 6.27496 1 
10.7182 -11.9771 -0.343405 138 226 52 6.04679 1 
10.5175 -11.9935 0.22713 138 226 52 7.9783 1 
10.8256 -11.976 -0.340764 138 226 52 6.01065 1 
10.8519 -11.9835 -0.281654 138 226 52 6.10039 1 
13.2315 -13.7887 1.90442 138 226 52 12.9963 1 
10.7724 -11.982 0.160486 138 226 52 8.10049 1 
10.6729 -11.9939 -0.0922611 138 226 52 6.98821 1 
13.2285 -13.7969 2.00789 138 226 52 11.9772 1 
8.75733 -11.9452 -0.351587 138 226 52 6.09233 1 
10.7989 -11.9921 0.130042 138 226 52 7.75504 1 
10.768 -11.9873 -0.0810698 138 226 52 7.04651 1 
13.2354 -13.8071 2.02272 138 226 52 12.0425 1 
8.92077 -11.927 -0.404828 138 226 52 6.03895 1 
10.8631 -11.9904 -0.103553 138 226 52 7.0289 1 
8.95074 -11.892 -0.410645 138 226 52 6.03901 1 
13.3581 -13.7953 2.02041 138 226 52 11.9765 1 
10.8463 -11.9941 0.213821 138 226 52 8.05137 1 
8.78812 -11.8159 -0.337404 138 226 52 3.97625 1 
13.3835 -13.8069 1.86085 138 226 52 12.5826 1 
8.91349 -11.8797 -0.296142 138 226 52 1.99819 1 
13.5228 -13.795 1.87005 138 226 52 12.1144 1 
8.90896 -11.762 -0.408207 138 226 52 6.03941 1 
13.3573 -13.8057 2.05152 138 226 52 12.9959 1 
13.4193 -13.7994 2.10904 138 226 52 12.9922 1 
11.1144 -11.9865 0.0344007 138 226 52 6.16583 1 
13.4235 -13.8125 2.12498 138 226 52 14.1133 1 
11.0228 -11.992 0.201004 138 226 52 7.54562 1 
13.5216 -13.7986 2.1063 138 226 52 12.9921 1 
13.5363 -13.8059 2.17316 138 226 52 14.1408 1 
11.087 -11.9896 0.213056 138 226 52 8.02342 1 
9.05403 -11.9163 -0.350825 138 226 52 6.08357 1 
9 -11.8438 -0.343703 138 226 52 5.05534 1 
13.6531 -13.8076 2.02749 138 226 52 13.1797 1 
10.956 -11.9752 -0.328357 138 226 52 6.01128 1 
9.0225 -11.8653 -0.29847 138 226 52 2.67568 1 
13.6763 -13.7908 1.96579 138 226 52 13.1086 1 
11.4111 -11.9937 -0.0496646 138 226 52 5.78064 1 
10.9165 -11.9829 -0.278769 138 226 52 6.10037 1 
13.8704 -13.7862 1.91154 138 226 52 12.1123 1 
9.35687 -11.8869 -0.350061 138 226 52 6.08364 1 
11.3039 -11.9943 0.0927834 138 226 52 7.65549 1 
13.5738 -13.8034 2.06502 138 226 52 13.0075 1 
11.0847 -11.9752 -0.325297 138 226 52 6.00665 1 
11.4608 -11.9831 0.0663961 138 226 52 7.38789 1 
13.7235 -13.7965 2.10696 138 226 52 12.9919 1 
11.0888 -11.9809 -0.282418 138 226 52 6.10032 1 
11.3789 -11.9897 0.112847 138 226 52 6.04284 1 
13.6654 -13.8073 2.16824 138 226 52 14.1682 1 
11.5654 -11.9878 0.0288128 138 226 52 7.05527 1 
13.802 -13.7956 2.08306 138 226 52 12.9994 1 
10.9662 -11.9911 -0.0986702 138 226 52 6.98188 1 
13.8212 -13.8028 2.04292 138 226 52 13.0701 1 
11.279 -11.989 0.193739 138 226 52 7.56541 1 
11.2169 -11.978 -0.247574 138 226 52 6.09794 1 
13.9294 -13.818 2.1863 138 226 52 14.095 1 
11.4367 -11.9877 0.185918 138 226 52 7.51188 1 
13.7798 -13.8094 2.17859 138 226 52 14.1116 1 
11.1044 -11.9914 -0.0901321 138 226 52 6.98752 1 
11.5519 -11.9846 0.184206 138 226 52 7.49617 1 
13.9705 -13.8055 1.89122 138 226 52 13.1126 1 
14.1122 -13.7811 1.91476 138 226 52 12.1122 1 
13.9579 -13.8101 2.03194 138 226 52 13.5024 1 
11.3131 -11.9869 -0.316037 138 226 52 5.99816 1 
14.0178 -13.7939 2.03417 138 226 52 13.0011 1 
14.2792 -13.8153 1.87551 138 226 52 12.1324 1 
11.4501 -11.9849 -0.310348 138 226 52 5.99892 1 
14.2994 -13.8039 1.92877 138 226 52 13.1086 1 
14.3033 -13.7764 1.92797 138 226 52 12.1124 1 
11.6016 -11.9766 -0.309296 138 226 52 5.93303 1 
20.5014 -12.2623 0.202196 138 226 52 8.06899 1 
14.1181 -13.8143 2.07403 138 226 52 13.9944 1 
11.6262 -11.9793 -0.295912 138 226 52 5.99178 1 
13.9978 -13.8074 2.12918 138 226 52 13.9945 1 
20.4784 -12.1987 0.243018 138 226 52 8.51854 1 
14.1185 -13.8203 2.15497 138 226 52 14.0257 1 
20.4755 -12.0799 0.204462 138 226 52 8.04354 1 
11.4625 -11.984 -0.246057 138 226 52 5.39324 1 
14.1103 -13.797 2.15954 138 226 52 13.995 1 
20.5273 -12.0809 0.21218 138 226 52 7.64998 1 
10.3627 -11.9941 0.439483 138 226 52 9.16475 1 
14.2966 -13.8169 2.04888 138 226 52 13.9979 1 
11.2919 -11.9863 -0.0780639 138 226 52 6.98995 1 
20.4893 -12.1789 0.305039 138 226 52 8.10381 1 
14.2724 -13.7678 2.04294 138 226 52 13.108 1 
10.4203 -11.9908 0.429808 138 226 52 9.10065 1 
14.266 -13.7931 2.14424 138 226 52 14.9931 1 
14.2459 -13.809 2.16232 138 226 52 14.0563 1 
10.2562 -11.9944 0.692564 138 226 52 10.6861 1 
14.4047 -13.8164 1.88893 138 226 52 12.2211 1 
14.3817 -13.7965 1.91311 138 226 52 13.0526 1 
20.4965 -13.4618 0.391893 138 226 52 14.0432 1 
14.4281 -13.7715 1.91785 138 226 52 12.1109 1 
20.4973 -13.4037 0.387703 138 226 52 8.2484 1 
14.3944 -13.7717 1.97066 138 226 52 12.1693 1 
20.5226 -13.3968 0.377822 138 226 52 11.9002 1 
10.5199 -11.9895 0.412081 138 226 52 9.60308 1 
14.5743 -13.8098 1.9045 138 226 52 12.1428 1 
20.5304 -13.4356 0.488166 138 226 52 9.81906 1 
14.54 -13.7709 1.93538 138 226 52 12.1113 1 
20.4892 -13.3852 0.499049 138 226 52 11.0551 1 
10.6917 -11.9869 0.425211 138 226 52 9.41131 1 
14.5552 -13.8285 1.9808 138 226 52 13.2036 1 
20.518 -13.263 0.352806 138 226 52 9.56239 1 
10.7512 -11.984 0.415479 138 226 52 9.10061 1 
14.585 -13.7973 1.96942 138 226 52 13.1035 1 
20.4966 -13.2947 0.392125 138 226 52 14.0431 1 
10.9909 -11.9846 0.724967 138 226 52 10.0163 1 
14.6928 -13.7664 1.9803 138 226 52 12.1751 1 
20.4805 -13.4516 0.631968 138 226 52 9.1064 1 
10.8082 -11.9879 0.441592 138 226 52 9.03292 1 
11.0118 -11.9798 0.841983 138 226 52 10.013 1 
14.4238 -13.8141 2.08554 138 226 52 13.9936 1 
20.5169 -13.4713 0.653606 138 226 52 12.0637 1 
10.5303 -11.9871 0.555617 138 226 52 8.98231 1 
11.1609 -11.9813 0.743474 138 226 52 10.0014 1 
20.6076 -13.5206 0.652434 138 226 52 9.10397 1 
14.4804 -13.8199 2.11283 138 226 52 15.1128 1 
20.7445 -13.4297 0.643628 138 226 52 8.98191 0 
11.261 -11.9774 0.736935 138 226 52 10.0055 1 
14.4113 -13.806 2.15763 138 226 52 14.0095 1 
20.5181 -13.2677 0.526671 138 226 52 11.0624 1 
10.8533 -11.9915 0.538485 138 226 52 9.05161 1 
11.1228 -11.9791 0.837741 138 226 52 10.0248 1 
14.6262 -13.8166 2.14227 138 226 52 15.1127 1 
20.4978 -13.2533 0.617605 138 226 52 12.062 1 
11.1249 -11.9699 0.837856 138 226 52 9.99876 1 
14.611 -13.8086 2.15369 138 226 52 14.1226 1 
20.5145 -13.2658 0.643008 138 226 52 12.0624 1 
14.6956 -13.8062 2.135 138 226 52 14.1332 1 
11.2722 -11.975 0.822174 138 226 52 10.032 1 
10.9958 -11.9821 0.990441 138 226 52 11.0164 1 
20.4853 -13.1195 0.347499 138 226 52 10.5173 1 
11.1503 -11.9792 1.01485 138 226 52 11.0002 1 
20.4935 -13.0679 0.318898 138 226 52 8.10552 1 
10.405 -11.9932 0.697957 138 226 52 10.1016 1 
20.5125 -13.0866 0.355792 138 226 52 9.56142 1 
20.5282 -12.9552 0.395885 138 226 52 9.77904 1 
10.3961 -11.9904 0.880464 138 226 52 9.98801 1 
12.0245 -12.0031 1.11633 138 226 52 11.1092 1 
20.4931 -13.0559 0.498959 138 226 52 11.0611 1 
11.4447 -11.9751 0.714234 138 226 52 10.0023 1 
11.6845 -11.995 1.33201 138 226 52 11.0978 1 
10.3683 -11.9937 0.932572 138 226 52 10.2732 1 
20.4842 -12.9862 0.418303 138 226 52 11.0742 1 
11.6882 -11.996 1.44769 138 226 52 11.0739 1 
11.3151 -11.9756 0.838614 138 226 52 10.1302 1 
11.7102 -12.0091 1.45698 138 226 52 11.5195 1 
20.4951 -12.8336 0.389024 138 226 52 13.4823 1 
11.4048 -11.9686 0.816967 138 226 52 10.0246 1 
10.4034 -11.9934 0.967097 138 226 52 11.1044 1 
20.5332 -12.8069 0.380812 138 226 52 9.88535 1 
11.8752 -12.0072 1.27377 138 226 52 11.1616 1 
11.3167 -11.9745 1.03163 138 226 52 11.0004 1 
11.2975 -11.9932 1.04087 138 226 52 9.97902 1 
20.5159 -13.1286 0.517208 138 226 52 13.053 1 
11.8619 -11.9954 1.29798 138 226 52 11.1045 1 
11.5668 -11.9943 1.03378 138 226 52 9.99897 1 
11.8966 -12.0013 1.27274 138 226 52 11.2386 1 
20.5309 -12.9706 0.545558 138 226 52 13.0265 1 
12.0228 -12.0033 1.31199 138 226 52 11.5542 1 
20.5105 -13.0867 0.641846 138 226 52 12.0614 1 
10.535 -11.9917 0.736939 138 226 52 10.1111 1 
11.8678 -12.0069 1.43451 138 226 52 12.3228 1 
20.6324 -13.0866 0.627205 138 226 52 8.99967 0 
11.8902 -11.9973 1.45217 138 226 52 11.0237 1 
20.5163 -13.0347 0.639032 138 226 52 12.0611 1 
10.5552 -11.9794 0.886409 138 226 52 9.98209 1 
20.4859 -12.9649 0.638535 138 226 52 12.0087 1 
20.745 -13.0998 0.631356 138 226 52 9.00004 1 
10.6885 -11.9891 0.862618 138 226 52 10.0733 1 
20.495 -12.836 0.524728 138 226 52 11.0599 1 
8.67657 -9.51812 -0.32029 138 226 52 2.07367 1 
20.4846 -12.8307 0.637896 138 226 52 12.0599 1 
10.7043 -11.9843 0.69787 138 226 52 10.4367 1 
8.688 -9.38801 -0.323101 138 226 52 2.16689 1 
10.8515 -11.9863 0.720574 138 226 52 10.0453 1 
8.81972 -9.45996 -0.314899 138 226 52 4.03734 1 
20.5328 -13.4623 0.809962 138 226 52 11.1549 1 
10.7458 -11.9908 0.811441 138 226 52 10.1637 1 
8.82214 -9.34792 -0.321341 138 226 52 2.097 1 
20.5173 -13.269 0.762051 138 226 52 13.0624 1 
20.4964 -13.2907 0.829331 138 226 52 10.9572 1 
10.8484 -11.9853 0.857958 138 226 52 10.0525 1 
20.4947 -13.2779 0.819056 138 226 52 11.1109 1 
10.5627 -11.9938 0.964425 138 226 52 10.5164 1 
10.6977 -11.988 1.04272 138 226 52 11.0035 1 
20.4939 -12.9598 0.770062 138 226 52 13.5608 1 
20.5269 -13.1259 0.801859 138 226 52 11.2779 1 
10.7106 -11.987 0.959046 138 226 52 11.9563 1 
20.4804 -12.7773 0.790228 138 226 52 12.192 1 
20.4929 -12.9242 0.987491 138 226 52 15.0605 1 
16.414 -13.7709 -0.133252 138 226 52 7.1066 1 
10.8731 -11.9846 0.988173 138 226 52 11.0078 1 
16.4144 -13.7618 -0.1414 138 226 52 7.0781 1 
8.73005 -9.28577 -0.339319 138 226 52 6.10687 1 
16.4863 -13.8285 -0.166321 138 226 52 3.61029 1 
8.59923 -9.19352 -0.33036 138 226 52 5.99758 1 
16.5072 -13.7533 -0.137245 138 226 52 7.04722 1 
8.76036 -9.19402 -0.338096 138 226 52 6.03905 1 
11.1439 -11.9812 0.433783 138 226 52 9.03063 1 
8.83928 -9.22344 -0.330954 138 226 52 5.81107 1 
20.4912 -12.6861 0.345603 138 226 52 11.7274 1 
11.0925 -11.9802 0.461712 138 226 52 9.04204 1 
20.4865 -12.4972 0.404228 138 226 52 14.0487 1 
8.76171 -9.09477 -0.326279 138 226 52 2.22824 1 
11.0125 -11.9841 0.526968 138 226 52 9.00259 1 
20.483 -12.4075 0.358823 138 226 52 12.8816 1 
20.4848 -12.3845 0.502798 138 226 52 13.8992 1 
8.92903 -9.00603 -0.314808 138 226 52 0.984872 1 
20.4782 -12.7093 0.542593 138 226 52 12.0614 1 
11.2651 -11.9773 0.518554 138 226 52 9.03132 1 
8.90219 -8.95467 -0.336485 138 226 52 6.02588 1 
20.4774 -12.6999 0.653626 138 226 52 11.6822 1 
20.7357 -12.7327 0.626418 138 226 52 8.99974 1 
20.6874 -12.6523 0.608557 138 226 52 8.97883 0 
20.477 -12.5619 0.651388 138 226 52 11.8687 1 
8.63223 -9.18323 -0.22592 138 226 52 6.97982 1 
20.4769 -12.4229 0.670504 138 226 52 12.03 1 
20.6977 -12.4171 0.606496 138 226 52 8.97684 0 
8.69202 -9.17473 -0.220446 138 226 52 6.98049 1 
8.75168 -9.19252 -0.139321 138 226 52 6.98014 1 
11.2807 -11.9893 0.391485 138 226 52 8.49969 1 
8.82595 -9.18995 -0.169536 138 226 52 6.90839 1 
20.4727 -12.2084 0.381321 138 226 52 11.0367 1 
8.82897 -9.18 -0.137739 138 226 52 7.10419 1 
11.4587 -11.9757 0.428039 138 226 52 9.02982 1 
20.4868 -12.2579 0.484344 138 226 52 10.2778 1 
20.5115 -12.1358 0.32002 138 226 52 8.04791 1 
8.68337 -9.08134 -0.222228 138 226 52 4.75343 1 
11.4109 -11.974 0.51477 138 226 52 9.02463 1 
20.5098 -12.1813 0.478409 138 226 52 10.055 1 
20.4759 -12.0757 0.42769 138 226 52 9.74625 1 
11.4193 -11.9729 0.51897 138 226 52 8.99119 1 
8.60006 -9.08263 -0.195985 138 226 52 4.20073 1 
20.5147 -12.2098 0.638018 138 226 52 13.5257 1 
8.59452 -9.0756 -0.132204 138 226 52 6.99498 1 
11.5823 -11.9722 0.506827 138 226 52 8.99756 1 
20.4768 -12.2442 0.662774 138 226 52 11.9232 1 
8.67681 -9.07693 -0.11212 138 226 52 5.9899 1 
20.4756 -12.0419 0.509101 138 226 52 11.7722 1 
20.5174 -12.0214 0.542573 138 226 52 12.0568 1 
8.8991 -9.08518 -0.243805 138 226 52 3.19045 1 
20.4979 -12.138 0.69348 138 226 52 9.04223 1 
20.509 -12.0551 0.666003 138 226 52 8.12245 1 
20.7024 -12.1475 0.599571 138 226 52 8.97744 0 
9.05086 -9.19001 -0.342849 138 226 52 6.10707 1 
20.4448 -12.5063 1.05667 138 226 52 12.5506 1 
9.07619 -9.1663 -0.333349 138 226 52 6.08943 1 
8.77931 -9.2119 0.369064 138 226 52 8.58156 1 
8.89057 -9.20887 0.340837 138 226 52 8.35112 1 
20.4801 -12.7134 0.810253 138 226 52 13.0605 1 
9.11981 -9.16335 -0.275682 138 226 52 5.59508 1 
8.70898 -9.09251 0.428323 138 226 52 8.9984 1 
20.4825 -12.5654 0.771651 138 226 52 12.9329 1 
8.93347 -9.102 0.408404 138 226 52 13.5235 1 
9.18757 -9.193 -0.333351 138 226 52 5.87343 1 
20.4815 -12.4021 0.800309 138 226 52 12.9942 1 
8.86873 -9.11391 0.477061 138 226 52 9.07175 1 
20.477 -12.5644 0.956467 138 226 52 14.4322 1 
8.62089 -9.16551 0.593833 138 226 52 8.97984 1 
20.5043 -12.3966 0.891127 138 226 52 9.12062 1 
16.4254 -13.7266 0.653047 138 226 52 8.98165 1 
8.67668 -9.16839 0.58986 138 226 52 8.97972 1 
20.5032 -12.3809 0.913543 138 226 52 9.11712 1 
8.70083 -9.16312 0.590841 138 226 52 8.98185 1 
20.4739 -12.4285 0.943028 138 226 52 14.2031 1 
8.61077 -9.17519 0.604055 138 226 52 9.04312 1 
16.4966 -13.7296 0.687009 138 226 52 8.97939 1 
8.70099 -9.20036 0.648825 138 226 52 9.55104 1 
16.5573 -13.8115 0.657471 138 226 52 9.10498 1 
8.82659 -9.1815 0.549509 138 226 52 9.10402 1 
9.08437 -9.06412 -0.317072 138 226 52 6.04941 1 
20.4973 -12.3677 0.746236 138 226 52 9.07959 1 
8.83342 -9.21114 0.686275 138 226 52 10.0761 1 
20.4823 -12.2625 0.835987 138 226 52 12.9125 1 
8.93252 -9.11187 0.621413 138 226 52 10.0457 1 
9.14129 -9.03598 -0.297384 138 226 52 4.09799 1 
20.5026 -12.2589 0.869525 138 226 52 9.10368 1 
8.99522 -8.98448 -0.330584 138 226 52 5.73001 1 
20.4736 -12.1064 0.715801 138 226 52 12.5039 1 
9.04615 -9.19513 0.595621 138 226 52 10.1067 1 
20.4829 -12.1259 0.785918 138 226 52 12.0545 1 
9.0091 -8.95353 -0.299639 138 226 52 4.11638 1 
9.05569 -9.19178 0.623726 138 226 52 10.1381 1 
10.5265 -11.9732 1.55308 138 226 52 11.9778 1 
8.99837 -9.10667 0.590629 138 226 52 8.98031 1 
20.4713 -12.2402 0.942757 138 226 52 14.5081 1 
9.04819 -8.96091 -0.291479 138 226 52 1.52428 1 
9.01754 -9.08106 0.588758 138 226 52 8.98034 1 
20.471 -12.3758 1.06855 138 226 52 14.9002 1 
10.6555 -11.9683 1.53665 138 226 52 12.0244 1 
9.19471 -9.10532 -0.303694 138 226 52 3.97525 1 
20.4776 -12.1258 0.934733 138 226 52 13.0545 1 
10.8829 -11.9739 1.4933 138 226 52 12.0535 1 
10.8438 -11.9835 1.5171 138 226 52 12.1151 1 
9.18795 -8.96793 -0.293591 138 226 52 3.02272 1 
8.84913 -9.17958 0.875925 138 226 52 10.1044 1 
10.6393 -11.9901 1.72329 138 226 52 14.1081 1 
17.9981 -13.7175 1.1332 138 226 52 10.0482 1 
9.02819 -9.17152 -0.249128 138 226 52 6.54405 1 
8.91069 -9.12753 0.854924 138 226 52 13.0344 1 
17.8667 -13.7033 1.19675 138 226 52 10.1087 1 
10.7936 -11.9887 1.71604 138 226 52 13.0513 1 
17.944 -13.7011 1.19698 138 226 52 10.1047 1 
8.73887 -9.09674 0.886297 138 226 52 10.0706 1 
9.10463 -9.19566 -0.0710952 138 226 52 6.99851 1 
17.9003 -13.6831 1.25542 138 226 52 9.98168 1 
8.62694 -9.15729 1.00369 138 226 52 9.97989 1 
10.7896 -11.9912 1.75494 138 226 52 12.0254 1 
17.8887 -13.715 1.32579 138 226 52 10.4883 1 
8.70252 -9.15609 0.999809 138 226 52 9.98376 1 
9.05367 -9.03345 -0.213448 138 226 52 6.98036 1 
18.0031 -13.6801 1.29716 138 226 52 9.98167 1 
8.60207 -9.12031 0.968309 138 226 52 10.1055 1 
8.90535 -9.11363 0.940105 138 226 52 11.0493 1 
9.00621 -9.11393 -0.209119 138 226 52 6.98032 1 
9.07175 -9.06006 -0.147612 138 226 52 7.10407 1 
18.1849 -13.7156 1.14446 138 226 52 10.0066 1 
9.05814 -9.19163 0.844533 138 226 52 11.1081 1 
18.3051 -13.7144 1.14408 138 226 52 10.0498 1 
11.0208 -11.9769 1.15833 138 226 52 11.013 1 
9.05561 -9.04238 0.738461 138 226 52 10.1068 1 
18.214 -13.705 1.18579 138 226 52 9.99355 1 
9.13123 -9.20843 0.9814 138 226 52 10.9975 1 
18.3072 -13.6745 1.25057 138 226 52 10.0106 1 
11.1111 -11.9645 1.1527 138 226 52 10.9988 1 
9.0582 -9.19503 1.03037 138 226 52 12.1067 1 
18.3148 -13.6717 1.26657 138 226 52 9.99922 1 
9.06673 -9.12012 0.889445 138 226 52 10.1041 1 
18.4435 -13.7087 1.14686 138 226 52 10.0219 1 
11.2649 -11.9737 1.1336 138 226 52 11.0264 1 
8.99366 -9.0907 0.992182 138 226 52 9.98032 1 
18.4967 -13.7071 1.16066 138 226 52 10.0508 1 
8.74546 -9.21361 0.0254385 138 226 52 7.10315 1 
18.4609 -13.6665 1.26797 138 226 52 9.99217 1 
9.00972 -9.07429 0.989846 138 226 52 9.98033 1 
11.0113 -11.9814 1.27492 138 226 52 12.0337 1 
8.59991 -9.18581 0.0357751 138 226 52 7.07547 1 
10.9975 -11.9777 1.43002 138 226 52 11.5032 1 
18.0278 -13.7082 1.61486 138 226 52 11.0225 1 
8.93436 -9.19566 0.016663 138 226 52 7.12236 1 
17.9095 -13.6873 1.75556 138 226 52 11.1118 1 
11.1668 -11.9929 1.32748 138 226 52 11.25 1 
18.0374 -13.6831 1.77717 138 226 52 11.1111 1 
8.68613 -9.07927 0.0523746 138 226 52 7.3481 1 
11.2666 -11.9942 1.33996 138 226 52 11.123 1 
8.94332 -9.10336 0.122739 138 226 52 8.04566 1 
11.1314 -11.9941 1.41228 138 226 52 11.026 1 
8.6197 -9.18057 0.183263 138 226 52 7.97963 1 
11.1207 -11.9829 1.41691 138 226 52 11.5097 1 
11.2875 -11.9835 2.03663 138 226 52 13.5466 1 
8.67099 -9.16689 0.188446 138 226 52 7.98052 1 
11.2811 -11.9941 2.17268 138 226 52 14.1538 1 
11.2335 -11.9878 1.39806 138 226 52 11.0107 1 
11.3093 -11.9904 2.16822 138 226 52 14.9954 1 
19.2417 -13.6926 1.17544 138 226 52 10.0212 1 
8.59383 5.65723 0.475719 138 226 52 12.0454 1 
19.1259 -13.6767 1.24015 138 226 52 10.1123 1 
11.4356 -11.9611 1.11703 138 226 52 11.0246 1 
11.5631 -11.9913 2.16294 138 226 52 14.0536 1 
8.41457 5.78091 0.496684 138 226 52 13.2564 1 
19.2321 -13.6628 1.2511 138 226 52 10.1126 1 
8.58111 5.78366 0.494813 138 226 52 14.1277 1 
11.618 -11.9595 1.09481 138 226 52 11.0017 1 
19.0612 -13.6437 1.28297 138 226 52 9.97793 1 
8.3129 5.67233 0.551534 138 226 52 12.0453 1 
11.413 -11.9924 1.34078 138 226 52 11.0671 1 
19.1199 -13.6505 1.29668 138 226 52 10.0124 1 
8.37639 5.67491 0.569689 138 226 52 12.04 1 
11.5912 -11.9937 1.42496 138 226 52 11.036 1 
8.39772 5.70427 0.560371 138 226 52 14.1115 1 
19.0904 -13.6881 1.43309 138 226 52 10.489 1 
9.52275 -11.9937 1.39806 138 226 52 14.0511 1 
8.77068 -9.19191 1.14308 138 226 52 11.111 1 
8.28698 5.7702 0.513014 138 226 52 14.1193 1 
19.206 -13.6422 1.28647 138 226 52 9.98064 1 
9.61701 -11.9927 1.2721 138 226 52 14.7152 1 
8.25842 5.66792 0.610634 138 226 52 12.0453 1 
8.86461 -9.17812 1.18096 138 226 52 11.1065 1 
8.84928 -9.17692 1.25574 138 226 52 11.2293 1 
8.45104 5.66412 0.523711 138 226 52 12.0283 1 
9.61072 -11.994 1.41796 138 226 52 14.0511 1 
8.68482 -9.10446 1.14723 138 226 52 11.061 1 
8.56116 5.70454 0.581151 138 226 52 14.1111 1 
10.9552 -11.9841 1.51611 138 226 52 12.2494 1 
8.9254 -9.12156 1.10289 138 226 52 12.0422 1 
8.57789 5.67272 0.611726 138 226 52 12.045 1 
18.8099 -13.7322 1.48382 138 226 52 10.9946 1 
8.62724 -9.17793 1.34016 138 226 52 11.2308 1 
8.46612 5.78623 0.649987 138 226 52 14.8611 1 
11.1409 -11.9939 1.62493 138 226 52 13.9626 1 
9.75175 -11.9909 1.09015 138 226 52 13.8639 1 
18.8716 -13.7319 1.47544 138 226 52 11.0214 1 
8.71243 -9.17381 1.33977 138 226 52 11.104 1 
9.90577 -11.9875 1.13582 138 226 52 14.4733 1 
10.9793 -11.9836 1.76485 138 226 52 11.9997 1 
18.5954 -13.7048 1.59532 138 226 52 11.1675 1 
8.62473 -9.15467 1.41232 138 226 52 10.9797 1 
9.79375 -11.9916 1.27321 138 226 52 12.9227 1 
18.7665 -13.6898 1.62703 138 226 52 11.1124 1 
8.60803 -9.13357 1.43122 138 226 52 11.5699 1 
9.81584 -11.9873 1.41487 138 226 52 14.0432 1 
11.0545 -11.9796 1.77911 138 226 52 12.0267 1 
8.6874 -9.14306 1.41582 138 226 52 11.1134 1 
7.8289 5.62073 0.764983 138 226 52 11.2543 1 
9.94595 -11.9856 1.27789 138 226 52 14.7178 1 
18.7917 -13.7023 1.64003 138 226 52 11.3349 1 
11.172 -11.9871 1.7873 138 226 52 12.0285 1 
8.69056 -9.1564 1.40379 138 226 52 10.9914 1 
7.9552 5.65132 0.790024 138 226 52 12.0271 1 
18.802 -13.722 1.78735 138 226 52 11.0942 1 
8.89591 -9.12501 1.28127 138 226 52 12.9204 1 
7.84441 5.78947 0.824853 138 226 52 14.8796 1 
11.2324 -11.986 1.79489 138 226 52 12.0268 1 
18.6249 -13.6756 1.7843 138 226 52 11.1105 1 
8.8953 -9.12354 1.39565 138 226 52 13.0457 1 
8.00901 5.78283 0.819472 138 226 52 14.7228 1 
9.52277 -11.9915 1.5736 138 226 52 15.0355 1 
18.9183 -13.6727 1.79486 138 226 52 11.0552 1 
8.7322 -9.1098 1.30704 138 226 52 11.6389 1 
8.10605 5.61854 0.771822 138 226 52 11.2082 1 
9.6304 -11.9926 1.59632 138 226 52 14.801 1 
8.04717 5.70488 0.805777 138 226 52 14.1112 1 
18.9127 -13.6895 1.83544 138 226 52 11.3338 1 
8.15584 5.7939 0.886335 138 226 52 14.996 1 
7.84559 5.66751 0.92371 138 226 52 11.3555 1 
9.01532 -9.1868 1.13069 138 226 52 12.1383 1 
9.80243 -11.9851 1.60619 138 226 52 14.9883 1 
9.1241 -9.20493 1.13476 138 226 52 11.9984 1 
7.98242 5.64699 0.911041 138 226 52 12.0418 1 
9.90265 -11.9894 1.61225 138 226 52 13.4549 1 
18.9413 -13.7209 1.58174 138 226 52 11.1874 1 
9.03994 -9.17246 1.24505 138 226 52 11.3586 1 
7.95348 5.66863 0.997665 138 226 52 10.075 1 
9.78594 -11.9934 1.65759 138 226 52 12.1481 1 
9.12521 -9.20892 1.28234 138 226 52 12.2471 1 
7.9865 5.70115 1.03824 138 226 52 14.5504 1 
19.2615 -13.7362 1.49134 138 226 52 11.0541 1 
9.87603 -11.9837 1.69543 138 226 52 12.761 1 
9.0385 -9.03184 1.34301 138 226 52 10.9793 1 
7.86243 5.7934 1.03389 138 226 52 15.1206 1 
19.1119 -13.6826 1.6427 138 226 52 11.1107 1 
9.95046 -11.9806 1.68016 138 226 52 15.0471 1 
8.99493 -9.06896 1.39582 138 226 52 10.9803 1 
7.96787 5.78962 1.00998 138 226 52 15.1205 1 
9.03287 -9.05622 1.38982 138 226 52 10.9803 1 
10.1107 -11.9755 1.67172 138 226 52 15.0432 1 
19.1993 -13.7057 1.55058 138 226 52 10.9937 1 
8.16257 5.67239 1.00614 138 226 52 10.6117 1 
19.1368 -13.7038 1.63759 138 226 52 11.1071 1 
19.0299 -13.6815 1.75096 138 226 52 10.9925 1 
8.96628 -9.31994 1.70267 138 226 52 12.067 1 
9.80961 -11.9917 1.84808 138 226 52 15.0197 1 
19.0808 -13.6845 1.81555 138 226 52 11.1196 1 
9.78321 -11.9894 2.01505 138 226 52 13.3103 1 
8.39937 5.70109 0.718691 138 226 52 14.1109 1 
19.1986 -13.6799 1.74928 138 226 52 11.0359 1 
9.91562 -11.9924 1.99831 138 226 52 12.9933 1 
8.30239 5.79315 0.883578 138 226 52 15.1213 1 
19.2135 -13.6943 1.8245 138 226 52 11.1439 1 
9.94392 -11.9885 1.85437 138 226 52 15.0509 1 
8.60268 -9.13014 1.51067 138 226 52 12.0474 1 
11.2862 -11.9938 1.5919 138 226 52 13.9264 1 
8.59356 5.63942 0.778092 138 226 52 11.984 1 
10.0695 -11.9911 1.85725 138 226 52 13.3838 1 
8.68287 -9.12462 1.51379 138 226 52 12.2988 1 
8.43997 5.65425 0.82478 138 226 52 11.7766 1 
10.1086 -11.9934 2.02668 138 226 52 12.9782 1 
8.74674 -9.17299 1.62436 138 226 52 12.105 1 
11.4057 -11.9909 1.81695 138 226 52 12.0747 1 
8.43145 5.78252 0.888732 138 226 52 15.1202 1 
9.97009 -11.991 2.06445 138 226 52 15.0508 1 
8.87474 -9.17619 1.49491 138 226 52 12.1057 1 
17.8528 -13.7323 1.91982 138 226 52 11.997 1 
11.6433 -11.9916 1.70641 138 226 52 11.9983 1 
9.94159 -11.9779 2.10666 138 226 52 14.1068 1 
8.56218 5.79018 0.823137 138 226 52 15.1209 1 
8.83255 -9.17319 1.59613 138 226 52 12.1051 1 
17.8823 -13.729 1.99369 138 226 52 12.113 1 
10.1145 -11.9813 2.13786 138 226 52 14.1033 1 
8.58369 5.86222 0.754113 138 226 52 15.1069 1 
8.97048 -9.18312 1.62019 138 226 52 13.1073 1 
11.5552 -11.9854 1.76724 138 226 52 11.9976 1 
17.9978 -13.7299 1.90289 138 226 52 11.9951 1 
8.27484 5.68856 0.936737 138 226 52 9.56582 1 
8.77942 -9.13428 1.67086 138 226 52 13.0464 1 
8.27879 5.78502 0.937384 138 226 52 14.9297 1 
18.1528 -13.722 1.94056 138 226 52 11.9934 1 
8.6881 -9.16889 1.75623 138 226 52 12.1039 1 
8.39551 5.77665 0.943246 138 226 52 13.5967 1 
8.62273 -9.18053 1.80608 138 226 52 12.1218 1 
18.0249 -13.7234 1.97575 138 226 52 12.0114 1 
10.2674 -11.9931 1.17381 138 226 52 11.0047 1 
8.71883 -9.16034 1.79226 138 226 52 11.9792 1 
18.0154 -13.7491 2.1266 138 226 52 13.14 1 
8.69218 -9.13925 1.83422 138 226 52 12.1022 1 
10.2498 -11.9815 1.89813 138 226 52 13.0781 1 
8.9763 -9.30772 1.68769 138 226 52 13.0275 1 
10.1317 -11.9896 1.9999 138 226 52 13.0784 1 
8.89065 -9.13331 1.67976 138 226 52 14.0458 1 
8.97669 -9.18624 1.71171 138 226 52 13.6076 1 
10.2525 -11.9892 2.02282 138 226 52 13.5295 1 
8.96622 -9.30281 1.83639 138 226 52 14.0419 1 
10.3763 -11.9809 1.9217 138 226 52 13.0203 1 
8.97351 -9.31146 1.84435 138 226 52 13.9172 1 
8.88485 -9.17676 1.78144 138 226 52 13.1058 1 
10.2064 -11.9921 2.17724 138 226 52 14.0542 1 
8.93176 -9.13167 1.83946 138 226 52 14.9148 1 
10.3762 -11.9841 2.05783 138 226 52 13.1084 1 
8.94107 -9.07304 1.81131 138 226 52 11.9979 1 
10.3998 -11.9823 2.06501 138 226 52 12.9783 1 
10.3597 -11.9802 2.15852 138 226 52 14.0781 1 
8.98383 -9.30499 1.54587 138 226 52 13.042 1 
9.01163 -9.186 1.47878 138 226 52 13.1075 1 
10.4017 -11.98 2.18315 138 226 52 14.1045 1 
9.01355 -9.08254 1.79244 138 226 52 11.9802 1 
9.03705 -9.00939 1.77922 138 226 52 11.9802 1 
10.5535 -11.9659 1.88933 138 226 52 12.9932 1 
8.62576 -9.13721 1.84672 138 226 52 12.0429 1 
10.6838 -11.9645 1.89831 138 226 52 13.0128 1 
8.70037 -9.17101 1.84897 138 226 52 12.7952 1 
8.69969 -9.14026 1.9883 138 226 52 15.0149 1 
10.6849 -11.9693 1.9983 138 226 52 13.0442 1 
8.85399 -9.17562 1.86409 138 226 52 13.1047 1 
10.8456 -11.967 1.93095 138 226 52 13.7812 1 
8.97526 -9.18404 1.87543 138 226 52 14.1222 1 
8.60548 -9.19512 2.1278 138 226 52 15.0541 1 
10.5621 -11.974 2.08421 138 226 52 13.042 1 
8.76117 -9.18614 2.04187 138 226 52 14.1665 1 
8.75587 -9.18908 2.12231 138 226 52 15.0471 1 
10.6441 -11.985 2.0864 138 226 52 13.0474 1 
8.78998 -9.18009 2.10732 138 226 52 15.0446 1 
8.87577 -9.18187 2.12695 138 226 52 15.0447 1 
10.682 -11.9813 2.10917 138 226 52 13.2782 1 
8.91568 -9.18263 2.04029 138 226 52 14.2234 1 
8.88463 -9.17846 2.10622 138 226 52 15.0446 1 
10.7802 -11.9664 2.07294 138 226 52 13.4982 1 
10.8092 -11.9695 2.12056 138 226 52 12.9813 1 
9.04728 -9.0662 1.86775 138 226 52 12.5423 1 
10.9614 -11.9915 1.85912 138 226 52 14.4604 1 
11.7521 -11.9678 -0.307469 138 226 52 5.73934 1 
10.9812 -11.9604 1.9888 138 226 52 14.9883 1 
11.71 -11.9783 -0.295518 138 226 52 5.99736 1 
11.9148 -11.9458 -0.315494 138 226 52 5.47641 1 
11.0306 -11.9563 1.96877 138 226 52 13.0471 1 
11.8702 -11.9694 -0.295186 138 226 52 5.99858 1 
11.0875 -11.9905 1.87003 138 226 52 15.0271 1 
11.7407 -11.7899 -0.302938 138 226 52 5.99825 1 
11.8279 -11.6987 -0.293497 138 226 52 3.97679 1 
11.1465 -11.9634 2.00435 138 226 52 13.8052 1 
11.9797 -11.6862 -0.287483 138 226 52 3.97583 1 
10.9619 -11.9561 2.12879 138 226 52 13.0345 1 
11.6912 -11.9936 -0.0807276 138 226 52 6.56835 1 
11.1171 -11.9804 2.12725 138 226 52 15.0065 1 
13.9838 -13.4156 -0.176861 138 226 52 5.98429 1 
11.138 -11.9828 2.13789 138 226 52 14.2845 1 
12.0482 -11.9587 -0.30626 138 226 52 5.72295 1 
12.2 -11.9695 -0.312821 138 226 52 1.93395 1 
12.3077 -11.9672 -0.304443 138 226 52 4.46028 1 
12.0685 -11.9913 -0.184069 138 226 52 6.74797 1 
12.195 -11.9885 -0.183733 138 226 52 6.74521 1 
12.1424 -11.9934 -0.136197 138 226 52 6.9979 1 
12.2998 -11.9899 -0.136354 138 226 52 6.98319 1 
12.4974 -11.9934 0.236126 138 226 52 8.02466 1 
12.5705 -11.986 0.235971 138 226 52 8.07387 1 
12.6483 -11.9835 0.231498 138 226 52 8.05443 1 
11.7068 -11.9907 0.0367174 138 226 52 6.90569 1 
12.7848 -11.9847 0.225091 138 226 52 8.0238 1 
11.8623 -11.9915 0.0608454 138 226 52 6.97201 1 
11.9876 -11.9783 0.0661489 138 226 52 6.0969 1 
11.7139 -11.9941 0.233973 138 226 52 7.63458 1 
11.7678 -11.9907 0.259716 138 226 52 8.00373 1 
12.9416 -11.993 0.0482989 138 226 52 7.10614 1 
13.0529 -11.9913 0.0311613 138 226 52 7.10775 1 
12.153 -11.9816 0.100997 138 226 52 6.75379 1 
12.3114 -11.9866 0.106596 138 226 52 7.08788 1 
12.9372 -11.9779 0.216743 138 226 52 8.01986 1 
12.2299 -11.9942 0.249859 138 226 52 8.07379 1 
12.8676 -11.98 0.223191 138 226 52 8.07382 1 
12.2044 -11.985 0.308493 138 226 52 8.0601 1 
12.3166 -11.9934 0.243862 138 226 52 8.06463 1 
13.0952 -11.9721 0.213945 138 226 52 8.0739 1 
13.114 -11.9749 0.209677 138 226 52 8.01988 1 
12.4397 -11.9676 -0.306431 138 226 52 4.22317 1 
12.6854 -11.9419 -0.304891 138 226 52 5.98151 1 
12.7575 -11.9611 -0.304798 138 226 52 5.93694 1 
12.7761 -11.8678 -0.312667 138 226 52 5.80006 1 
12.6888 -11.7846 -0.306894 138 226 52 5.97624 1 
12.7054 -11.6981 -0.309073 138 226 52 5.97636 1 
12.4944 -11.993 -0.181801 138 226 52 7.07406 1 
12.4556 -11.9854 -0.140712 138 226 52 6.99769 1 
11.7191 -11.9941 0.329597 138 226 52 8.08462 1 
12.5828 -11.9824 -0.146919 138 226 52 6.99776 1 
11.8938 -11.9789 0.379737 138 226 52 8.55207 1 
12.6548 -11.9887 -0.191698 138 226 52 7.04822 1 
12.0273 -11.9897 0.316342 138 226 52 8.09408 1 
12.7641 -11.9901 -0.203232 138 226 52 7.02008 1 
12.0151 -11.9896 0.461995 138 226 52 9.57156 1 
12.741 -11.9873 -0.14684 138 226 52 6.99792 1 
12.0159 -11.9649 0.486437 138 226 52 9.07234 1 
12.9394 -11.9507 -0.310651 138 226 52 5.01707 1 
12.8651 -11.7001 -0.285445 138 226 52 4.02999 1 
12.1521 -11.9933 0.656204 138 226 52 9.06964 1 
12.8834 -11.9843 -0.211623 138 226 52 7.07407 1 
12.2411 -11.9898 0.66058 138 226 52 9.07379 1 
12.9301 -11.9817 -0.216619 138 226 52 7.01524 1 
12.3368 -11.9922 0.655547 138 226 52 9.02242 1 
12.9255 -11.9883 -0.118107 138 226 52 7.1061 1 
13.0961 -11.9773 -0.22778 138 226 52 7.074 1 
13.1077 -11.9804 -0.231046 138 226 52 7.01989 1 
13.072 -11.9866 -0.140761 138 226 52 7.05342 1 
